ply
format ascii 1.0
comment Created by Open3D
element vertex 3693
property double x
property double y
property double z
end_header
66 96 5.64773
67 96 5.6821
68 96 5.72669
69 96 5.75215
70 96 5.74359
71 96 5.73116
72 96 5.75591
73 96 5.81768
74 96 5.87282
75 96 5.88541
76 96 5.8478
77 96 5.74619
78 96 5.54521
79 96 5.22168
80 96 4.78558
81 96 4.2434
82 96 3.61926
83 96 2.97622
84 96 2.35502
85 96 1.73987
86 96 1.11737
87 96 0.536977
88 96 0.0227261
89 96 -0.491896
90 96 -1.11034
91 96 -1.94863
92 96 -2.95975
93 96 -4.64385
94 96 -15
95 96 -15
96 96 -15
97 96 -15
98 96 -15
99 96 -15
100 96 -15
101 96 -15
102 96 -15
103 96 -15
104 96 -15
105 96 -15
106 96 -15
107 96 -15
108 96 -15
109 96 -15
110 96 -15
111 96 -15
112 96 -15
113 96 -15
114 96 -15
115 96 -15
116 96 -15
117 96 -15
118 96 -15
119 96 -15
0 97 -15
1 97 -15
2 97 -15
3 97 -15
4 97 -15
5 97 -15
6 97 -15
7 97 -15
8 97 -15
9 97 -15
10 97 -15
11 97 -15
12 97 -15
13 97 -15
14 97 -15
15 97 -15
16 97 -15
17 97 -15
18 97 -15
19 97 -15
20 97 -15
21 97 -15
22 97 -15
23 97 -15
24 97 -15
25 97 -15
26 97 -15
27 97 -15
28 97 -15
29 97 -15
30 97 -15
31 97 -15
32 97 -13.27
33 97 -10.5675
34 97 -8.25901
35 97 -6.63141
36 97 -5.42625
37 97 -4.41807
38 97 -3.53153
39 97 -2.77615
40 97 -2.12382
41 97 -1.51981
42 97 -0.964386
43 97 -0.466125
44 97 0.0187049
45 97 0.559368
46 97 1.15901
47 97 1.73684
48 97 2.23155
49 97 2.67486
50 97 3.09566
51 97 3.47198
52 97 3.78628
53 97 4.05281
54 97 4.2857
55 97 4.4873
56 97 4.68292
57 97 4.90096
58 97 5.11932
59 97 5.29577
60 97 5.42391
61 97 5.51898
62 97 5.59696
63 97 5.66719
64 97 5.72088
65 97 5.74993
66 97 5.78123
67 97 5.83574
68 97 5.88596
69 97 5.88426
70 97 5.82669
71 97 5.77602
72 97 5.78855
73 97 5.86287
74 97 5.94788
75 97 5.99794
76 97 5.99283
77 97 5.89414
78 97 5.66012
79 97 5.29139
80 97 4.82818
81 97 4.28794
82 97 3.67319
83 97 3.01346
84 97 2.33289
85 97 1.62473
86 97 0.897718
87 97 0.220952
88 97 -0.37678
89 97 -0.947808
90 97 -1.59161
91 97 -2.52009
92 97 -4.24805
93 97 -15
94 97 -15
95 97 -15
96 97 -15
97 97 -15
98 97 -15
99 97 -15
100 97 -15
101 97 -15
102 97 -15
103 97 -15
104 97 -15
105 97 -15
106 97 -15
107 97 -15
108 97 -15
109 97 -15
110 97 -15
111 97 -15
112 97 -15
113 97 -15
114 97 -15
115 97 -15
116 97 -15
117 97 -15
118 97 -15
119 97 -15
0 98 -15
1 98 -15
2 98 -15
3 98 -15
4 98 -15
5 98 -15
6 98 -15
7 98 -15
8 98 -15
9 98 -15
10 98 -15
11 98 -15
12 98 -15
13 98 -15
14 98 -15
15 98 -15
16 98 -15
17 98 -15
18 98 -15
19 98 -15
20 98 -15
21 98 -15
22 98 -15
23 98 -15
24 98 -15
25 98 -15
26 98 -15
27 98 -15
28 98 -15
29 98 -15
30 98 -15
31 98 -15
32 98 -15
33 98 -11.4993
34 98 -8.86113
35 98 -6.93689
36 98 -5.55752
37 98 -4.50887
38 98 -3.62904
39 98 -2.84629
40 98 -2.13347
41 98 -1.49586
42 98 -0.954467
43 98 -0.474264
44 98 0.0185476
45 98 0.584494
46 98 1.21461
47 98 1.83092
48 98 2.37795
49 98 2.86935
50 98 3.32435
51 98 3.73217
52 98 4.07317
53 98 4.34738
54 98 4.56712
55 98 4.75126
56 98 4.93488
57 98 5.13667
58 98 5.33374
59 98 5.48618
60 98 5.58334
61 98 5.64271
62 98 5.68918
63 98 5.74275
64 98 5.79602
65 98 5.83885
66 98 5.88814
67 98 5.95347
68 98 6.00601
69 98 5.99561
70 98 5.92521
71 98 5.864
72 98 5.86968
73 98 5.9503
74 98 6.05409
75 98 6.12717
76 98 6.13837
77 98 6.03637
78 98 5.78056
79 98 5.38147
80 98 4.89653
81 98 4.35842
82 98 3.74947
83 98 3.06234
84 98 2.31054
85 98 1.51521
86 98 0.708862
87 98 -0.0590307
88 98 -0.781575
89 98 -1.48943
90 98 -2.23549
91 98 -3.14078
92 98 -4.42751
93 98 -15
94 98 -15
95 98 -15
96 98 -15
97 98 -15
98 98 -15
99 98 -15
100 98 -15
101 98 -15
102 98 -15
103 98 -15
104 98 -15
105 98 -15
106 98 -15
107 98 -15
108 98 -15
109 98 -15
110 98 -15
111 98 -15
112 98 -15
113 98 -15
114 98 -15
115 98 -15
116 98 -15
117 98 -15
118 98 -15
119 98 -15
0 99 -15
1 99 -15
2 99 -15
3 99 -15
4 99 -15
5 99 -15
6 99 -15
7 99 -15
8 99 -15
9 99 -15
10 99 -15
11 99 -15
12 99 -15
13 99 -15
14 99 -15
15 99 -15
16 99 -15
17 99 -15
18 99 -15
19 99 -15
20 99 -15
21 99 -15
22 99 -15
23 99 -15
24 99 -15
25 99 -15
26 99 -15
27 99 -15
28 99 -15
29 99 -15
30 99 -15
31 99 -15
32 99 -15
33 99 -12.1127
34 99 -9.32768
35 99 -7.19904
36 99 -5.67329
37 99 -4.57313
38 99 -3.68542
39 99 -2.88044
40 99 -2.1357
41 99 -1.4948
42 99 -0.974611
43 99 -0.497289
44 99 0.0361395
45 99 0.665183
46 99 1.35835
47 99 2.04175
48 99 2.66407
49 99 3.20818
50 99 3.67391
51 99 4.07627
52 99 4.41386
53 99 4.67988
54 99 4.88921
55 99 5.07056
56 99 5.25132
57 99 5.43208
58 99 5.58992
59 99 5.69968
60 99 5.75358
61 99 5.77464
62 99 5.79397
63 99 5.82806
64 99 5.86882
65 99 5.91271
66 99 5.96848
67 99 6.02956
68 99 6.07685
69 99 6.07665
70 99 6.03242
71 99 5.99304
72 99 6.00768
73 99 6.0975
74 99 6.20645
75 99 6.2688
76 99 6.25398
77 99 6.13114
78 99 5.87803
79 99 5.49198
80 99 5.01513
81 99 4.47926
82 99 3.85269
83 99 3.10843
84 99 2.27019
85 99 1.40515
86 99 0.557692
87 99 -0.277096
88 99 -1.12923
89 99 -2.00648
90 99 -2.91388
91 99 -3.89174
92 99 -4.60276
93 99 -15
94 99 -15
95 99 -15
96 99 -15
97 99 -15
98 99 -15
99 99 -15
100 99 -15
101 99 -15
102 99 -15
103 99 -15
104 99 -15
105 99 -15
106 99 -15
107 99 -15
108 99 -15
109 99 -15
110 99 -15
111 99 -15
112 99 -15
113 99 -15
114 99 -15
115 99 -15
116 99 -15
117 99 -15
118 99 -15
119 99 -15
0 100 -15
1 100 -15
2 100 -15
3 100 -15
4 100 -15
5 100 -15
6 100 -15
7 100 -15
8 100 -15
9 100 -15
10 100 -15
11 100 -15
12 100 -15
13 100 -15
14 100 -15
15 100 -15
16 100 -15
17 100 -15
18 100 -15
19 100 -15
20 100 -15
21 100 -15
22 100 -15
23 100 -15
24 100 -15
25 100 -15
26 100 -15
27 100 -15
28 100 -15
29 100 -15
30 100 -15
31 100 -15
32 100 -15
33 100 -15
34 100 -9.1925
35 100 -7.25321
36 100 -5.72715
37 100 -4.59289
38 100 -3.68496
39 100 -2.87758
40 100 -2.14464
41 100 -1.52283
42 100 -1.00448
43 100 -0.496033
44 100 0.117607
45 100 0.855401
46 100 1.63887
47 100 2.38265
48 100 3.04797
49 100 3.61309
50 100 4.06948
51 100 4.44695
52 100 4.76459
53 100 5.02219
54 100 5.23496
55 100 5.42172
56 100 5.59198
57 100 5.74015
58 100 5.8469
59 100 5.90007
60 100 5.90087
61 100 5.88035
62 100 5.87655
63 100 5.89533
64 100 5.92358
65 100 5.96671
66 100 6.03025
67 100 6.09429
68 100 6.14177
69 100 6.15675
70 100 6.14564
71 100 6.137
72 100 6.1732
73 100 6.2809
74 100 6.39382
75 100 6.43028
76 100 6.36455
77 100 6.20073
78 100 5.94711
79 100 5.59059
80 100 5.14372
81 100 4.61627
82 100 3.96246
83 100 3.15545
84 100 2.24546
85 100 1.338
86 100 0.467642
87 100 -0.421258
88 100 -1.37299
89 100 -2.34674
90 100 -3.28311
91 100 -4.24965
92 100 -15
93 100 -15
94 100 -15
95 100 -15
96 100 -15
97 100 -15
98 100 -15
99 100 -15
100 100 -15
101 100 -15
102 100 -15
103 100 -15
104 100 -15
105 100 -15
106 100 -15
107 100 -15
108 100 -15
109 100 -15
110 100 -15
111 100 -15
112 100 -15
113 100 -15
114 100 -15
115 100 -15
116 100 -15
117 100 -15
118 100 -15
119 100 -15
0 101 -15
1 101 -15
2 101 -15
3 101 -15
4 101 -15
5 101 -15
6 101 -15
7 101 -15
8 101 -15
9 101 -15
10 101 -15
11 101 -15
12 101 -15
13 101 -15
14 101 -15
15 101 -15
16 101 -15
17 101 -15
18 101 -15
19 101 -15
20 101 -15
21 101 -15
22 101 -15
23 101 -15
24 101 -15
25 101 -15
26 101 -15
27 101 -15
28 101 -15
29 101 -15
30 101 -15
31 101 -15
32 101 -15
33 101 -15
34 101 -8.71901
35 101 -7.19892
36 101 -5.74889
37 101 -4.59709
38 101 -3.67412
39 101 -2.88496
40 101 -2.18588
41 101 -1.57703
42 101 -1.02111
43 101 -0.426315
44 101 0.31866
45 101 1.19391
46 101 2.05001
47 101 2.79741
48 101 3.44349
49 101 3.99686
50 101 4.44408
51 101 4.79639
52 101 5.08195
53 101 5.32641
54 101 5.54689
55 101 5.74078
56 101 5.89648
57 101 6.00744
58 101 6.06307
59 101 6.06062
60 101 6.01454
61 101 5.96278
62 101 5.94361
63 101 5.95309
64 101 5.97368
65 101 6.01944
66 101 6.09641
67 101 6.17335
68 101 6.22393
69 101 6.24568
70 101 6.25638
71 101 6.27512
72 101 6.33279
73 101 6.44986
74 101 6.55918
75 101 6.57319
76 101 6.46634
77 101 6.2605
78 101 5.99207
79 101 5.66075
80 101 5.25543
81 101 4.75256
82 101 4.09327
83 101 3.25942
84 101 2.32155
85 101 1.38965
86 101 0.478522
87 101 -0.485537
88 101 -1.53408
89 101 -2.54981
90 101 -3.29334
91 101 -4.26819
92 101 -15
93 101 -15
94 101 -15
95 101 -15
96 101 -15
97 101 -15
98 101 -15
99 101 -15
100 101 -15
101 101 -15
102 101 -15
103 101 -15
104 101 -15
105 101 -15
106 101 -15
107 101 -15
108 101 -15
109 101 -15
110 101 -15
111 101 -15
112 101 -15
113 101 -15
114 101 -15
115 101 -15
116 101 -15
117 101 -15
118 101 -15
119 101 -15
0 102 -15
1 102 -15
2 102 -15
3 102 -15
4 102 -15
5 102 -15
6 102 -15
7 102 -15
8 102 -15
9 102 -15
10 102 -15
11 102 -15
12 102 -15
13 102 -15
14 102 -15
15 102 -15
16 102 -15
17 102 -15
18 102 -15
19 102 -15
20 102 -15
21 102 -15
22 102 -15
23 102 -15
24 102 -15
25 102 -15
26 102 -15
27 102 -15
28 102 -15
29 102 -15
30 102 -15
31 102 -15
32 102 -15
33 102 -15
34 102 -15
35 102 -7.30745
36 102 -5.79228
37 102 -4.64992
38 102 -3.75758
39 102 -3.00358
40 102 -2.31943
41 102 -1.66932
42 102 -0.996657
43 102 -0.222925
44 102 0.70189
45 102 1.67964
46 102 2.5282
47 102 3.20487
48 102 3.7894
49 102 4.32508
50 102 4.7763
51 102 5.11159
52 102 5.35988
53 102 5.57989
54 102 5.79683
55 102 5.99006
56 102 6.12895
57 102 6.20567
58 102 6.2251
59 102 6.19423
60 102 6.13014
61 102 6.06474
62 102 6.03123
63 102 6.02932
64 102 6.04665
65 102 6.09963
66 102 6.18792
67 102 6.27024
68 102 6.31695
69 102 6.33956
70 102 6.36506
71 102 6.4027
72 102 6.46716
73 102 6.5703
74 102 6.65563
75 102 6.64491
76 102 6.51629
77 102 6.29502
78 102 6.02554
79 102 5.72317
80 102 5.365
81 102 4.90067
82 102 4.26342
83 102 3.44134
84 102 2.51041
85 102 1.55624
86 102 0.575691
87 102 -0.494818
88 102 -1.68062
89 102 -2.87365
90 102 -4.01148
91 102 -15
92 102 -15
93 102 -15
94 102 -15
95 102 -15
96 102 -15
97 102 -15
98 102 -15
99 102 -15
100 102 -15
101 102 -15
102 102 -15
103 102 -15
104 102 -15
105 102 -15
106 102 -15
107 102 -15
108 102 -15
109 102 -15
110 102 -15
111 102 -15
112 102 -15
113 102 -15
114 102 -15
115 102 -15
116 102 -15
117 102 -15
118 102 -15
119 102 -15
0 103 -15
1 103 -15
2 103 -15
3 103 -15
4 103 -15
5 103 -15
6 103 -15
7 103 -15
8 103 -15
9 103 -15
10 103 -15
11 103 -15
12 103 -15
13 103 -15
14 103 -15
15 103 -15
16 103 -15
17 103 -15
18 103 -15
19 103 -15
20 103 -15
21 103 -15
22 103 -15
23 103 -15
24 103 -15
25 103 -15
26 103 -15
27 103 -15
28 103 -15
29 103 -15
30 103 -15
31 103 -15
32 103 -15
33 103 -15
34 103 -15
35 103 -7.65943
36 103 -5.90249
37 103 -4.85643
38 103 -4.06697
39 103 -3.35422
40 103 -2.63598
41 103 -1.86001
42 103 -0.958855
43 103 0.0986391
44 103 1.21564
45 103 2.22825
46 103 3.01863
47 103 3.61936
48 103 4.15142
49 103 4.66408
50 103 5.09914
51 103 5.4017
52 103 5.60512
53 103 5.78973
54 103 5.98844
55 103 6.16901
56 103 6.28866
57 103 6.33768
58 103 6.33865
59 103 6.31145
60 103 6.26105
61 103 6.19882
62 103 6.14985
63 103 6.12974
64 103 6.1445
65 103 6.20748
66 103 6.30431
67 103 6.38624
68 103 6.42689
69 103 6.44846
70 103 6.48228
71 103 6.52882
72 103 6.58997
73 103 6.66609
74 103 6.70949
75 103 6.66333
76 103 6.51972
77 103 6.31001
78 103 6.06837
79 103 5.80292
80 103 5.48416
81 103 5.05343
82 103 4.45114
83 103 3.66651
84 103 2.757
85 103 1.77299
86 103 0.717399
87 103 -0.428223
88 103 -1.66722
89 103 -2.89063
90 103 -3.89106
91 103 -15
92 103 -15
93 103 -15
94 103 -15
95 103 -15
96 103 -15
97 103 -15
98 103 -15
99 103 -15
100 103 -15
101 103 -15
102 103 -15
103 103 -15
104 103 -15
105 103 -15
106 103 -15
107 103 -15
108 103 -15
109 103 -15
110 103 -15
111 103 -15
112 103 -15
113 103 -15
114 103 -15
115 103 -15
116 103 -15
117 103 -15
118 103 -15
119 103 -15
0 104 -15
1 104 -15
2 104 -15
3 104 -15
4 104 -15
5 104 -15
6 104 -15
7 104 -15
8 104 -15
9 104 -15
10 104 -15
11 104 -15
12 104 -15
13 104 -15
14 104 -15
15 104 -15
16 104 -15
17 104 -15
18 104 -15
19 104 -15
20 104 -15
21 104 -15
22 104 -15
23 104 -15
24 104 -15
25 104 -15
26 104 -15
27 104 -15
28 104 -15
29 104 -15
30 104 -15
31 104 -15
32 104 -15
33 104 -15
34 104 -15
35 104 -15
36 104 -6.14429
37 104 -5.31807
38 104 -4.62834
39 104 -3.9184
40 104 -3.10944
41 104 -2.12609
42 104 -0.900604
43 104 0.46674
44 104 1.71736
45 104 2.72147
46 104 3.48032
47 104 4.06812
48 104 4.5807
49 104 5.05002
50 104 5.42647
51 104 5.67063
52 104 5.82449
53 104 5.9705
54 104 6.14216
55 104 6.30102
56 104 6.39886
57 104 6.42539
58 104 6.41677
59 104 6.40807
60 104 6.3913
61 104 6.35138
62 104 6.2967
63 104 6.25504
64 104 6.25901
65 104 6.32392
66 104 6.42598
67 104 6.51308
68 104 6.55509
69 104 6.57411
70 104 6.60685
71 104 6.65814
72 104 6.72187
73 104 6.77545
74 104 6.77301
75 104 6.68818
76 104 6.53367
77 104 6.34489
78 104 6.13559
79 104 5.89103
80 104 5.57987
81 104 5.15635
82 104 4.58424
83 104 3.85006
84 104 2.97107
85 104 1.97414
86 104 0.898607
87 104 -0.222558
88 104 -1.39868
89 104 -2.64585
90 104 -4.08779
91 104 -15
92 104 -15
93 104 -15
94 104 -15
95 104 -15
96 104 -15
97 104 -15
98 104 -15
99 104 -15
100 104 -15
101 104 -15
102 104 -15
103 104 -15
104 104 -15
105 104 -15
106 104 -15
107 104 -15
108 104 -15
109 104 -15
110 104 -15
111 104 -15
112 104 -15
113 104 -15
114 104 -15
115 104 -15
116 104 -15
117 104 -15
118 104 -15
119 104 -15
0 105 -15
1 105 -15
2 105 -15
3 105 -15
4 105 -15
5 105 -15
6 105 -15
7 105 -15
8 105 -15
9 105 -15
10 105 -15
11 105 -15
12 105 -15
13 105 -15
14 105 -15
15 105 -15
16 105 -15
17 105 -15
18 105 -15
19 105 -15
20 105 -15
21 105 -15
22 105 -15
23 105 -15
24 105 -15
25 105 -15
26 105 -15
27 105 -15
28 105 -15
29 105 -15
30 105 -15
31 105 -15
32 105 -15
33 105 -15
34 105 -15
35 105 -15
36 105 -6.90541
37 105 -6.03863
38 105 -5.29699
39 105 -4.51206
40 105 -3.53801
41 105 -2.25231
42 105 -0.681951
43 105 0.878377
44 105 2.14953
45 105 3.12065
46 105 3.88553
47 105 4.50939
48 105 5.02222
49 105 5.4351
50 105 5.73443
51 105 5.91782
52 105 6.03017
53 105 6.13871
54 105 6.2724
55 105 6.39978
56 105 6.4762
57 105 6.48883
58 105 6.4779
59 105 6.48914
60 105 6.51056
61 105 6.50367
62 105 6.45621
63 105 6.40093
64 105 6.38823
65 105 6.43754
66 105 6.5291
67 105 6.62223
68 105 6.68089
69 105 6.70843
70 105 6.73753
71 105 6.78614
72 105 6.84719
73 105 6.87838
74 105 6.83955
75 105 6.73724
76 105 6.59621
77 105 6.43286
78 105 6.23521
79 105 5.9758
80 105 5.63268
81 105 5.18615
82 105 4.63069
83 105 3.95056
84 105 3.11443
85 105 2.14199
86 105 1.12111
87 105 0.109241
88 105 -0.935483
89 105 -2.07805
90 105 -3.29804
91 105 -4.23228
92 105 -15
93 105 -15
94 105 -15
95 105 -15
96 105 -15
97 105 -15
98 105 -15
99 105 -15
100 105 -15
101 105 -15
102 105 -15
103 105 -15
104 105 -15
105 105 -15
106 105 -15
107 105 -15
108 105 -15
109 105 -15
110 105 -15
111 105 -15
112 105 -15
113 105 -15
114 105 -15
115 105 -15
116 105 -15
117 105 -15
118 105 -15
119 105 -15
0 106 -15
1 106 -15
2 106 -15
3 106 -15
4 106 -15
5 106 -15
6 106 -15
7 106 -15
8 106 -15
9 106 -15
10 106 -15
11 106 -15
12 106 -15
13 106 -15
14 106 -15
15 106 -15
16 106 -15
17 106 -15
18 106 -15
19 106 -15
20 106 -15
21 106 -15
22 106 -15
23 106 -15
24 106 -15
25 106 -15
26 106 -15
27 106 -15
28 106 -15
29 106 -15
30 106 -15
31 106 -15
32 106 -15
33 106 -15
34 106 -15
35 106 -15
36 106 -15
37 106 -6.50201
38 106 -5.75691
39 106 -4.86448
40 106 -3.62011
41 106 -2.00608
42 106 -0.249775
43 106 1.31699
44 106 2.52446
45 106 3.44954
46 106 4.22211
47 106 4.87457
48 106 5.38077
49 106 5.74004
50 106 5.9792
51 106 6.12846
52 106 6.22207
53 106 6.29927
54 106 6.38309
55 106 6.46557
56 106 6.5181
57 106 6.52635
58 106 6.52454
59 106 6.55722
60 106 6.61342
61 106 6.64072
62 106 6.61061
63 106 6.55836
64 106 6.53688
65 106 6.56134
66 106 6.62106
67 106 6.70111
68 106 6.77744
69 106 6.82889
70 106 6.86538
71 106 6.90792
72 106 6.94994
73 106 6.94864
74 106 6.88377
75 106 6.78998
76 106 6.68488
77 106 6.54294
78 106 6.33036
79 106 6.03109
80 106 5.64456
81 106 5.17198
82 106 4.6327
83 106 4.01227
84 106 3.23999
85 106 2.32608
86 106 1.38317
87 106 0.465564
88 106 -0.508858
89 106 -1.6395
90 106 -2.898
91 106 -4.15315
92 106 -15
93 106 -15
94 106 -15
95 106 -15
96 106 -15
97 106 -15
98 106 -15
99 106 -15
100 106 -15
101 106 -15
102 106 -15
103 106 -15
104 106 -15
105 106 -15
106 106 -15
107 106 -15
108 106 -15
109 106 -15
110 106 -15
111 106 -15
112 106 -15
113 106 -15
114 106 -15
115 106 -15
116 106 -15
117 106 -15
118 106 -15
119 106 -15
0 107 -15
1 107 -15
2 107 -15
3 107 -15
4 107 -15
5 107 -15
6 107 -15
7 107 -15
8 107 -15
9 107 -15
10 107 -15
11 107 -15
12 107 -15
13 107 -15
14 107 -15
15 107 -15
16 107 -15
17 107 -15
18 107 -15
19 107 -15
20 107 -15
21 107 -15
22 107 -15
23 107 -15
24 107 -15
25 107 -15
26 107 -15
27 107 -15
28 107 -15
29 107 -15
30 107 -15
31 107 -15
32 107 -15
33 107 -15
34 107 -15
35 107 -15
36 107 -15
37 107 -15
38 107 -5.69304
39 107 -4.76863
40 107 -3.23004
41 107 -1.43521
42 107 0.286885
43 107 1.74037
44 107 2.86766
45 107 3.75818
46 107 4.51633
47 107 5.15151
48 107 5.62707
49 107 5.94149
50 107 6.14414
51 107 6.28235
52 107 6.3793
53 107 6.44512
54 107 6.48845
55 107 6.52121
56 107 6.54087
57 107 6.5443
58 107 6.55707
59 107 6.60885
60 107 6.68628
61 107 6.73583
62 107 6.72579
63 107 6.6951
64 107 6.68651
65 107 6.69924
66 107 6.72653
67 107 6.77871
68 107 6.85651
69 107 6.92409
70 107 6.9674
71 107 7.00307
72 107 7.02408
73 107 6.9958
74 107 6.91538
75 107 6.83181
76 107 6.75238
77 107 6.62019
78 107 6.38857
79 107 6.05745
80 107 5.64636
81 107 5.16747
82 107 4.65014
83 107 4.08486
84 107 3.38658
85 107 2.5424
86 107 1.65263
87 107 0.766449
88 107 -0.207712
89 107 -1.37376
90 107 -2.69924
91 107 -4.09214
92 107 -15
93 107 -15
94 107 -15
95 107 -15
96 107 -15
97 107 -15
98 107 -15
99 107 -15
100 107 -15
101 107 -15
102 107 -15
103 107 -15
104 107 -15
105 107 -15
106 107 -15
107 107 -15
108 107 -15
109 107 -15
110 107 -15
111 107 -15
112 107 -15
113 107 -15
114 107 -15
115 107 -15
116 107 -15
117 107 -15
118 107 -15
119 107 -15
0 108 -15
1 108 -15
2 108 -15
3 108 -15
4 108 -15
5 108 -15
6 108 -15
7 108 -15
8 108 -15
9 108 -15
10 108 -15
11 108 -15
12 108 -15
13 108 -15
14 108 -15
15 108 -15
16 108 -15
17 108 -15
18 108 -15
19 108 -15
20 108 -15
21 108 -15
22 108 -15
23 108 -15
24 108 -15
25 108 -15
26 108 -15
27 108 -15
28 108 -15
29 108 -15
30 108 -15
31 108 -15
32 108 -15
33 108 -15
34 108 -15
35 108 -15
36 108 -15
37 108 -15
38 108 -15
39 108 -4.38986
40 108 -2.54467
41 108 -0.734656
42 108 0.827597
43 108 2.12661
44 108 3.1898
45 108 4.06678
46 108 4.79665
47 108 5.37968
48 108 5.80639
49 108 6.08434
50 108 6.26047
51 108 6.38375
52 108 6.47983
53 108 6.5478
54 108 6.57712
55 108 6.57639
56 108 6.56414
57 108 6.55664
58 108 6.57421
59 108 6.63022
60 108 6.71013
61 108 6.7725
62 108 6.78959
63 108 6.79054
64 108 6.79968
65 108 6.81131
66 108 6.82941
67 108 6.8739
68 108 6.94605
69 108 7.00335
70 108 7.03388
71 108 7.05946
72 108 7.07198
73 108 7.03458
74 108 6.94562
75 108 6.8554
76 108 6.77063
77 108 6.63229
78 108 6.39345
79 108 6.05928
80 108 5.65579
81 108 5.19738
82 108 4.70763
83 108 4.18091
84 108 3.53958
85 108 2.75355
86 108 1.8981
87 108 1.0201
88 108 0.0430147
89 108 -1.12867
90 108 -2.4486
91 108 -3.68374
92 108 -4.29433
93 108 -15
94 108 -15
95 108 -15
96 108 -15
97 108 -15
98 108 -15
99 108 -15
100 108 -15
101 108 -15
102 108 -15
103 108 -15
104 108 -15
105 108 -15
106 108 -15
107 108 -15
108 108 -15
109 108 -15
110 108 -15
111 108 -15
112 108 -15
113 108 -15
114 108 -15
115 108 -15
116 108 -15
117 108 -15
118 108 -15
119 108 -15
0 109 -15
1 109 -15
2 109 -15
3 109 -15
4 109 -15
5 109 -15
6 109 -15
7 109 -15
8 109 -15
9 109 -15
10 109 -15
11 109 -15
12 109 -15
13 109 -15
14 109 -15
15 109 -15
16 109 -15
17 109 -15
18 109 -15
19 109 -15
20 109 -15
21 109 -15
22 109 -15
23 109 -15
24 109 -15
25 109 -15
26 109 -15
27 109 -15
28 109 -15
29 109 -15
30 109 -15
31 109 -15
32 109 -15
33 109 -15
34 109 -15
35 109 -15
36 109 -15
37 109 -15
38 109 -15
39 109 -3.79653
40 109 -1.74379
41 109 -0.00915866
42 109 1.37968
43 109 2.53462
44 109 3.53337
45 109 4.38475
46 109 5.0743
47 109 5.59515
48 109 5.96649
49 109 6.21055
50 109 6.36024
51 109 6.45516
52 109 6.52966
53 109 6.59509
54 109 6.63445
55 109 6.63128
56 109 6.59956
57 109 6.56939
58 109 6.56944
59 109 6.61467
60 109 6.69363
61 109 6.77603
62 109 6.83258
63 109 6.86185
64 109 6.87086
65 109 6.87322
66 109 6.8965
67 109 6.95608
68 109 7.02719
69 109 7.06573
70 109 7.07745
71 109 7.0922
72 109 7.09724
73 109 7.04754
74 109 6.94292
75 109 6.83588
76 109 6.73838
77 109 6.59702
78 109 6.36374
79 109 6.04207
80 109 5.66031
81 109 5.23511
82 109 4.7744
83 109 4.26771
84 109 3.65954
85 109 2.92988
86 109 2.13094
87 109 1.2883
88 109 0.342629
89 109 -0.78362
90 109 -2.05996
91 109 -3.30762
92 109 -4.18467
93 109 -15
94 109 -15
95 109 -15
96 109 -15
97 109 -15
98 109 -15
99 109 -15
100 109 -15
101 109 -15
102 109 -15
103 109 -15
104 109 -15
105 109 -15
106 109 -15
107 109 -15
108 109 -15
109 109 -15
110 109 -15
111 109 -15
112 109 -15
113 109 -15
114 109 -15
115 109 -15
116 109 -15
117 109 -15
118 109 -15
119 109 -15
0 110 -15
1 110 -15
2 110 -15
3 110 -15
4 110 -15
5 110 -15
6 110 -15
7 110 -15
8 110 -15
9 110 -15
10 110 -15
11 110 -15
12 110 -15
13 110 -15
14 110 -15
15 110 -15
16 110 -15
17 110 -15
18 110 -15
19 110 -15
20 110 -15
21 110 -15
22 110 -15
23 110 -15
24 110 -15
25 110 -15
26 110 -15
27 110 -15
28 110 -15
29 110 -15
30 110 -15
31 110 -15
32 110 -15
33 110 -15
34 110 -15
35 110 -15
36 110 -15
37 110 -15
38 110 -4.34754
39 110 -2.86043
40 110 -0.879081
41 110 0.703582
42 110 1.94662
43 110 2.99058
44 110 3.91068
45 110 4.69698
46 110 5.32661
47 110 5.79229
48 110 6.1182
49 110 6.33142
50 110 6.45764
51 110 6.52771
52 110 6.57485
53 110 6.62557
54 110 6.67349
55 110 6.68374
56 110 6.64938
57 110 6.60042
58 110 6.57943
59 110 6.61422
60 110 6.69393
61 110 6.78981
62 110 6.872
63 110 6.91344
64 110 6.91229
65 110 6.90339
66 110 6.93378
67 110 7.01117
68 110 7.08692
69 110 7.12185
70 110 7.12687
71 110 7.123
72 110 7.09634
73 110 7.01454
74 110 6.89221
75 110 6.78128
76 110 6.69045
77 110 6.5646
78 110 6.34736
79 110 6.03591
80 110 5.66566
81 110 5.26234
82 110 4.82482
83 110 4.33188
84 110 3.75088
85 110 3.08937
86 110 2.37769
87 110 1.60072
88 110 0.701981
89 110 -0.368098
90 110 -1.59092
91 110 -2.88275
92 110 -4.15042
93 110 -15
94 110 -15
95 110 -15
96 110 -15
97 110 -15
98 110 -15
99 110 -15
100 110 -15
101 110 -15
102 110 -15
103 110 -15
104 110 -15
105 110 -15
106 110 -15
107 110 -15
108 110 -15
109 110 -15
110 110 -15
111 110 -15
112 110 -15
113 110 -15
114 110 -15
115 110 -15
116 110 -15
117 110 -15
118 110 -15
119 110 -15
0 111 -15
1 111 -15
2 111 -15
3 111 -15
4 111 -15
5 111 -15
6 111 -15
7 111 -15
8 111 -15
9 111 -15
10 111 -15
11 111 -15
12 111 -15
13 111 -15
14 111 -15
15 111 -15
16 111 -15
17 111 -15
18 111 -15
19 111 -15
20 111 -15
21 111 -15
22 111 -15
23 111 -15
24 111 -15
25 111 -15
26 111 -15
27 111 -15
28 111 -15
29 111 -15
30 111 -15
31 111 -15
32 111 -15
33 111 -15
34 111 -15
35 111 -15
36 111 -15
37 111 -15
38 111 -3.24741
39 111 -1.60882
40 111 0.0297162
41 111 1.38464
42 111 2.48272
43 111 3.43393
44 111 4.27521
45 111 4.98211
46 111 5.54736
47 111 5.97467
48 111 6.27755
49 111 6.47195
50 111 6.58477
51 111 6.64714
52 111 6.67846
53 111 6.70049
54 111 6.72507
55 111 6.73208
56 111 6.7062
57 111 6.66393
58 111 6.64342
59 111 6.67641
60 111 6.74759
61 111 6.82748
62 111 6.89666
63 111 6.93055
64 111 6.93009
65 111 6.92854
66 111 6.96781
67 111 7.04495
68 111 7.11309
69 111 7.15123
70 111 7.16173
71 111 7.14056
72 111 7.07458
73 111 6.96188
74 111 6.83672
75 111 6.74166
76 111 6.66969
77 111 6.56315
78 111 6.36057
79 111 6.05047
80 111 5.67674
81 111 5.27737
82 111 4.85798
83 111 4.38824
84 111 3.84334
85 111 3.2492
86 111 2.61628
87 111 1.90206
88 111 1.04698
89 111 0.0182445
90 111 -1.17687
91 111 -2.53774
92 111 -4.16725
93 111 -15
94 111 -15
95 111 -15
96 111 -15
97 111 -15
98 111 -15
99 111 -15
100 111 -15
101 111 -15
102 111 -15
103 111 -15
104 111 -15
105 111 -15
106 111 -15
107 111 -15
108 111 -15
109 111 -15
110 111 -15
111 111 -15
112 111 -15
113 111 -15
114 111 -15
115 111 -15
116 111 -15
117 111 -15
118 111 -15
119 111 -15
0 112 -15
1 112 -15
2 112 -15
3 112 -15
4 112 -15
5 112 -15
6 112 -15
7 112 -15
8 112 -15
9 112 -15
10 112 -15
11 112 -15
12 112 -15
13 112 -15
14 112 -15
15 112 -15
16 112 -15
17 112 -15
18 112 -15
19 112 -15
20 112 -15
21 112 -15
22 112 -15
23 112 -15
24 112 -15
25 112 -15
26 112 -15
27 112 -15
28 112 -15
29 112 -15
30 112 -15
31 112 -15
32 112 -15
33 112 -15
34 112 -15
35 112 -15
36 112 -15
37 112 -3.7597
38 112 -2.00056
39 112 -0.569476
40 112 0.819898
41 112 1.98745
42 112 2.96176
43 112 3.82935
44 112 4.59964
45 112 5.23936
46 112 5.75394
47 112 6.16247
48 112 6.4722
49 112 6.67854
50 112 6.79484
51 112 6.84773
52 112 6.85367
53 112 6.83058
54 112 6.80488
55 112 6.78655
56 112 6.77111
57 112 6.75769
58 112 6.75825
59 112 6.7907
60 112 6.83374
61 112 6.86505
62 112 6.88936
63 112 6.90967
64 112 6.93356
65 112 6.9677
66 112 7.01971
67 112 7.07195
68 112 7.10441
69 112 7.13066
70 112 7.14882
71 112 7.12716
72 112 7.047
73 112 6.92778
74 112 6.81295
75 112 6.734
76 112 6.67295
77 112 6.57862
78 112 6.39327
79 112 6.09225
80 112 5.71395
81 112 5.30727
82 112 4.89677
83 112 4.45096
84 112 3.93782
85 112 3.38373
86 112 2.78873
87 112 2.10848
88 112 1.2867
89 112 0.289041
90 112 -0.890655
91 112 -2.27874
92 112 -3.93741
93 112 -15
94 112 -15
95 112 -15
96 112 -15
97 112 -15
98 112 -15
99 112 -15
100 112 -15
101 112 -15
102 112 -15
103 112 -15
104 112 -15
105 112 -15
106 112 -15
107 112 -15
108 112 -15
109 112 -15
110 112 -15
111 112 -15
112 112 -15
113 112 -15
114 112 -15
115 112 -15
116 112 -15
117 112 -15
118 112 -15
119 112 -15
0 113 -15
1 113 -15
2 113 -15
3 113 -15
4 113 -15
5 113 -15
6 113 -15
7 113 -15
8 113 -15
9 113 -15
10 113 -15
11 113 -15
12 113 -15
13 113 -15
14 113 -15
15 113 -15
16 113 -15
17 113 -15
18 113 -15
19 113 -15
20 113 -15
21 113 -15
22 113 -15
23 113 -15
24 113 -15
25 113 -15
26 113 -15
27 113 -15
28 113 -15
29 113 -15
30 113 -15
31 113 -15
32 113 -15
33 113 -15
34 113 -15
35 113 -15
36 113 -15
37 113 -2.5187
38 113 -1.2397
39 113 0.180358
40 113 1.45341
41 113 2.53235
42 113 3.44906
43 113 4.25984
44 113 4.96536
45 113 5.5444
46 113 6.01434
47 113 6.40468
48 113 6.72817
49 113 6.9635
50 113 7.08937
51 113 7.11525
52 113 7.07271
53 113 6.99617
54 113 6.91854
55 113 6.86588
56 113 6.84952
57 113 6.85938
58 113 6.88037
59 113 6.90445
60 113 6.90496
61 113 6.87821
62 113 6.85813
63 113 6.87261
64 113 6.92825
65 113 7.00423
66 113 7.06977
67 113 7.09207
68 113 7.07937
69 113 7.08139
70 113 7.10298
71 113 7.09305
72 113 7.02002
73 113 6.90819
74 113 6.80237
75 113 6.72843
76 113 6.66673
77 113 6.57506
78 113 6.40688
79 113 6.13088
80 113 5.7701
81 113 5.37008
82 113 4.9613
83 113 4.51766
84 113 4.00646
85 113 3.4548
86 113 2.86045
87 113 2.18235
88 113 1.38071
89 113 0.427157
90 113 -0.694111
91 113 -2.01012
92 113 -3.45698
93 113 -4.61465
94 113 -15
95 113 -15
96 113 -15
97 113 -15
98 113 -15
99 113 -15
100 113 -15
101 113 -15
102 113 -15
103 113 -15
104 113 -15
105 113 -15
106 113 -15
107 113 -15
108 113 -15
109 113 -15
110 113 -15
111 113 -15
112 113 -15
113 113 -15
114 113 -15
115 113 -15
116 113 -15
117 113 -15
118 113 -15
119 113 -15
0 114 -15
1 114 -15
2 114 -15
3 114 -15
4 114 -15
5 114 -15
6 114 -15
7 114 -15
8 114 -15
9 114 -15
10 114 -15
11 114 -15
12 114 -15
13 114 -15
14 114 -15
15 114 -15
16 114 -15
17 114 -15
18 114 -15
19 114 -15
20 114 -15
21 114 -15
22 114 -15
23 114 -15
24 114 -15
25 114 -15
26 114 -15
27 114 -15
28 114 -15
29 114 -15
30 114 -15
31 114 -15
32 114 -15
33 114 -15
34 114 -15
35 114 -15
36 114 -15
37 114 -1.88125
38 114 -0.518072
39 114 0.830835
40 114 2.04313
41 114 3.11582
42 114 4.04841
43 114 4.84074
44 114 5.48967
45 114 6.01112
46 114 6.43776
47 114 6.79137
48 114 7.09204
49 114 7.32075
50 114 7.43069
51 114 7.41569
52 114 7.32167
53 114 7.20329
54 114 7.08931
55 114 6.99958
56 114 6.95596
57 114 6.95207
58 114 6.96143
59 114 6.95294
60 114 6.9052
61 114 6.84586
62 114 6.82324
63 114 6.85279
64 114 6.92539
65 114 7.01569
66 114 7.08398
67 114 7.09118
68 114 7.05434
69 114 7.03887
70 114 7.05732
71 114 7.05363
72 114 6.98691
73 114 6.87973
74 114 6.77792
75 114 6.70434
76 114 6.64002
77 114 6.54615
78 114 6.38277
79 114 6.12563
80 114 5.79443
81 114 5.42061
82 114 5.01353
83 114 4.54944
84 114 4.01864
85 114 3.45827
86 114 2.86005
87 114 2.17492
88 114 1.38617
89 114 0.495509
90 114 -0.519767
91 114 -1.71484
92 114 -3.05257
93 114 -4.25877
94 114 -15
95 114 -15
96 114 -15
97 114 -15
98 114 -15
99 114 -15
100 114 -15
101 114 -15
102 114 -15
103 114 -15
104 114 -15
105 114 -15
106 114 -15
107 114 -15
108 114 -15
109 114 -15
110 114 -15
111 114 -15
112 114 -15
113 114 -15
114 114 -15
115 114 -15
116 114 -15
117 114 -15
118 114 -15
119 114 -15
0 115 -15
1 115 -15
2 115 -15
3 115 -15
4 115 -15
5 115 -15
6 115 -15
7 115 -15
8 115 -15
9 115 -15
10 115 -15
11 115 -15
12 115 -15
13 115 -15
14 115 -15
15 115 -15
16 115 -15
17 115 -15
18 115 -15
19 115 -15
20 115 -15
21 115 -15
22 115 -15
23 115 -15
24 115 -15
25 115 -15
26 115 -15
27 115 -15
28 115 -15
29 115 -15
30 115 -15
31 115 -15
32 115 -15
33 115 -15
34 115 -15
35 115 -15
36 115 -3.75601
37 115 -1.31859
38 115 0.182207
39 115 1.50592
40 115 2.70455
41 115 3.8116
42 115 4.79072
43 115 5.58551
44 115 6.19361
45 115 6.67403
46 115 7.06775
47 115 7.3688
48 115 7.59423
49 115 7.74787
50 115 7.79309
51 115 7.72497
52 115 7.5949
53 115 7.46107
54 115 7.32857
55 115 7.19591
56 115 7.09788
57 115 7.04695
58 115 7.01118
59 115 6.94325
60 115 6.84932
61 115 6.79588
62 115 6.81562
63 115 6.87261
64 115 6.93748
65 115 7.0087
66 115 7.07085
67 115 7.08389
68 115 7.04705
69 115 7.0192
70 115 7.02303
71 115 7.01365
72 115 6.94839
73 115 6.84716
74 115 6.75574
75 115 6.68792
76 115 6.61914
77 115 6.51153
78 115 6.3299
79 115 6.06606
80 115 5.75131
81 115 5.40372
82 115 5.00264
83 115 4.52262
84 115 3.98453
85 115 3.43227
86 115 2.84708
87 115 2.17539
88 115 1.41439
89 115 0.58846
90 115 -0.330598
91 115 -1.41997
92 115 -2.6989
93 115 -4.05912
94 115 -15
95 115 -15
96 115 -15
97 115 -15
98 115 -15
99 115 -15
100 115 -15
101 115 -15
102 115 -15
103 115 -15
104 115 -15
105 115 -15
106 115 -15
107 115 -15
108 115 -15
109 115 -15
110 115 -15
111 115 -15
112 115 -15
113 115 -15
114 115 -15
115 115 -15
116 115 -15
117 115 -15
118 115 -15
119 115 -15
0 116 -15
1 116 -15
2 116 -15
3 116 -15
4 116 -15
5 116 -15
6 116 -15
7 116 -15
8 116 -15
9 116 -15
10 116 -15
11 116 -15
12 116 -15
13 116 -15
14 116 -15
15 116 -15
16 116 -15
17 116 -15
18 116 -15
19 116 -15
20 116 -15
21 116 -15
22 116 -15
23 116 -15
24 116 -15
25 116 -15
26 116 -15
27 116 -15
28 116 -15
29 116 -15
30 116 -15
31 116 -15
32 116 -15
33 116 -15
34 116 -15
35 116 -15
36 116 -2.56005
37 116 -0.69839
38 116 0.861382
39 116 2.20527
40 116 3.43654
41 116 4.59487
42 116 5.61396
43 116 6.41092
44 116 6.99895
45 116 7.45947
46 116 7.82648
47 116 8.06817
48 116 8.19375
49 116 8.23613
50 116 8.18924
51 116 8.05968
52 116 7.90007
53 116 7.76192
54 116 7.62328
55 116 7.4535
56 116 7.29631
57 116 7.1872
58 116 7.09033
59 116 6.95823
60 116 6.83369
61 116 6.80222
62 116 6.85964
63 116 6.92381
64 116 6.96082
65 116 6.99867
66 116 7.0486
67 116 7.06916
68 116 7.03389
69 116 6.99066
70 116 6.97885
71 116 6.96965
72 116 6.91589
73 116 6.82778
74 116 6.75278
75 116 6.69775
76 116 6.62463
77 116 6.49421
78 116 6.28087
79 116 5.99561
80 116 5.67746
81 116 5.33251
82 116 4.93376
83 116 4.46232
84 116 3.94956
85 116 3.42487
86 116 2.86347
87 116 2.23322
88 116 1.53098
89 116 0.762209
90 116 -0.112582
91 116 -1.16078
92 116 -2.43629
93 116 -4.02038
94 116 -15
95 116 -15
96 116 -15
97 116 -15
98 116 -15
99 116 -15
100 116 -15
101 116 -15
102 116 -15
103 116 -15
104 116 -15
105 116 -15
106 116 -15
107 116 -15
108 116 -15
109 116 -15
110 116 -15
111 116 -15
112 116 -15
113 116 -15
114 116 -15
115 116 -15
116 116 -15
117 116 -15
118 116 -15
119 116 -15
0 117 -15
1 117 -15
2 117 -15
3 117 -15
4 117 -15
5 117 -15
6 117 -15
7 117 -15
8 117 -15
9 117 -15
10 117 -15
11 117 -15
12 117 -15
13 117 -15
14 117 -15
15 117 -15
16 117 -15
17 117 -15
18 117 -15
19 117 -15
20 117 -15
21 117 -15
22 117 -15
23 117 -15
24 117 -15
25 117 -15
26 117 -15
27 117 -15
28 117 -15
29 117 -15
30 117 -15
31 117 -15
32 117 -15
33 117 -15
34 117 -15
35 117 -15
36 117 -1.5458
37 117 0.0319635
38 117 1.51955
39 117 2.87751
40 117 4.15756
41 117 5.36196
42 117 6.39483
43 117 7.17848
44 117 7.74967
45 117 8.18959
46 117 8.52519
47 117 8.72294
48 117 8.78773
49 117 8.75449
50 117 8.63148
51 117 8.44257
52 117 8.24756
53 117 8.09696
54 117 7.95872
55 117 7.776
56 117 7.58141
57 117 7.41767
58 117 7.2597
59 117 7.08541
60 117 6.95048
61 117 6.91646
62 117 6.95218
63 117 6.98093
64 117 6.98686
65 117 7.00166
66 117 7.03144
67 117 7.03865
68 117 6.99565
69 117 6.94548
70 117 6.93398
71 117 6.93584
72 117 6.8996
73 117 6.82603
74 117 6.76369
75 117 6.71782
76 117 6.64025
77 117 6.49539
78 117 6.27148
79 117 5.98497
80 117 5.65747
81 117 5.28628
82 117 4.87108
83 117 4.41537
84 117 3.94164
85 117 3.45134
86 117 2.9179
87 117 2.33992
88 117 1.70567
89 117 0.977799
90 117 0.10659
91 117 -0.938008
92 117 -2.1595
93 117 -3.54487
94 117 -4.9127
95 117 -15
96 117 -15
97 117 -15
98 117 -15
99 117 -15
100 117 -15
101 117 -15
102 117 -15
103 117 -15
104 117 -15
105 117 -15
106 117 -15
107 117 -15
108 117 -15
109 117 -15
110 117 -15
111 117 -15
112 117 -15
113 117 -15
114 117 -15
115 117 -15
116 117 -15
117 117 -15
118 117 -15
119 117 -15
0 118 -15
1 118 -15
2 118 -15
3 118 -15
4 118 -15
5 118 -15
6 118 -15
7 118 -15
8 118 -15
9 118 -15
10 118 -15
11 118 -15
12 118 -15
13 118 -15
14 118 -15
15 118 -15
16 118 -15
17 118 -15
18 118 -15
19 118 -15
20 118 -15
21 118 -15
22 118 -15
23 118 -15
24 118 -15
25 118 -15
26 118 -15
27 118 -15
28 118 -15
29 118 -15
30 118 -15
31 118 -15
32 118 -15
33 118 -15
34 118 -15
35 118 -3.09492
36 118 -0.645663
37 118 0.80239
38 118 2.21584
39 118 3.55687
40 118 4.84346
41 118 6.03884
42 118 7.03578
43 118 7.78166
44 118 8.32545
45 118 8.74299
46 118 9.06542
47 118 9.26272
48 118 9.32846
49 118 9.27141
50 118 9.10164
51 118 8.86992
52 118 8.64499
53 118 8.47439
54 118 8.32593
55 118 8.13924
56 118 7.9318
57 118 7.73483
58 118 7.54049
59 118 7.35343
60 118 7.20942
61 118 7.12788
62 118 7.0826
63 118 7.04437
64 118 7.02046
65 118 7.0183
66 118 7.01807
67 118 6.99715
68 118 6.94911
69 118 6.91108
70 118 6.91448
71 118 6.92757
72 118 6.90454
73 118 6.84334
74 118 6.78509
75 118 6.73313
76 118 6.64366
77 118 6.4951
78 118 6.28705
79 118 6.02104
80 118 5.69174
81 118 5.29819
82 118 4.86614
83 118 4.41704
84 118 3.96611
85 118 3.50183
86 118 2.99622
87 118 2.45617
88 118 1.86743
89 118 1.16699
90 118 0.288616
91 118 -0.791308
92 118 -2.04645
93 118 -3.44863
94 118 -4.9372
95 118 -15
96 118 -15
97 118 -15
98 118 -15
99 118 -15
100 118 -15
101 118 -15
102 118 -15
103 118 -15
104 118 -15
105 118 -15
106 118 -15
107 118 -15
108 118 -15
109 118 -15
110 118 -15
111 118 -15
112 118 -15
113 118 -15
114 118 -15
115 118 -15
116 118 -15
117 118 -15
118 118 -15
119 118 -15
0 119 -15
1 119 -15
2 119 -15
3 119 -15
4 119 -15
5 119 -15
6 119 -15
7 119 -15
8 119 -15
9 119 -15
10 119 -15
11 119 -15
12 119 -15
13 119 -15
14 119 -15
15 119 -15
16 119 -15
17 119 -15
18 119 -15
19 119 -15
20 119 -15
21 119 -15
22 119 -15
23 119 -15
24 119 -15
25 119 -15
26 119 -15
27 119 -15
28 119 -15
29 119 -15
30 119 -15
31 119 -15
32 119 -15
33 119 -15
34 119 -15
35 119 -1.6663
36 119 0.0213128
37 119 1.58554
38 119 3.02757
39 119 4.36453
40 119 5.59533
41 119 6.6845
42 119 7.57324
43 119 8.24619
44 119 8.7464
45 119 9.14932
46 119 9.48894
47 119 9.71948
48 119 9.80893
49 119 9.74974
50 119 9.56884
51 119 9.33313
52 119 9.09885
53 119 8.89622
54 119 8.70434
55 119 8.49825
56 119 8.2942
57 119 8.09245
58 119 7.88035
59 119 7.67693
60 119 7.50226
61 119 7.35467
62 119 7.22839
63 119 7.12946
64 119 7.07077
65 119 7.03744
66 119 7.00053
67 119 6.95596
68 119 6.91242
69 119 6.89845
70 119 6.92504
71 119 6.95044
72 119 6.9342
73 119 6.87604
74 119 6.8079
75 119 6.73472
76 119 6.62875
77 119 6.48266
78 119 6.29666
79 119 6.04861
80 119 5.72195
81 119 5.33391
82 119 4.91383
83 119 4.47552
84 119 4.03016
85 119 3.57729
86 119 3.0967
87 119 2.57825
88 119 2.00933
89 119 1.33018
90 119 0.456948
91 119 -0.660684
92 119 -1.99142
93 119 -3.44219
94 119 -4.93063
95 119 -15
96 119 -15
97 119 -15
98 119 -15
99 119 -15
100 119 -15
101 119 -15
102 119 -15
103 119 -15
104 119 -15
105 119 -15
106 119 -15
107 119 -15
108 119 -15
109 119 -15
110 119 -15
111 119 -15
112 119 -15
113 119 -15
114 119 -15
115 119 -15
116 119 -15
117 119 -15
118 119 -15
119 119 -15
0 120 -15
1 120 -15
2 120 -15
3 120 -15
4 120 -15
5 120 -15
6 120 -15
7 120 -15
8 120 -15
9 120 -15
10 120 -15
11 120 -15
12 120 -15
13 120 -15
14 120 -15
15 120 -15
16 120 -15
17 120 -15
18 120 -15
19 120 -15
20 120 -15
21 120 -15
22 120 -15
23 120 -15
24 120 -15
25 120 -15
26 120 -15
27 120 -15
28 120 -15
29 120 -15
30 120 -15
31 120 -15
32 120 -15
33 120 -15
34 120 -15
35 120 -0.95192
36 120 0.708323
37 120 2.37764
38 120 3.94901
39 120 5.33705
40 120 6.46962
41 120 7.37732
42 120 8.10829
43 120 8.68544
44 120 9.1391
45 120 9.53136
46 120 9.88318
47 120 10.1341
48 120 10.2304
49 120 10.1645
50 120 9.98884
51 120 9.77184
52 120 9.54324
53 120 9.30601
54 120 9.05646
55 120 8.82415
56 120 8.63171
57 120 8.43777
58 120 8.20821
59 120 7.97093
60 120 7.75365
61 120 7.55787
62 120 7.38531
63 120 7.24352
64 120 7.14194
65 120 7.06465
66 120 6.99357
67 120 6.93089
68 120 6.88725
69 120 6.89237
70 120 6.94371
71 120 6.98392
72 120 6.96479
73 120 6.89315
74 120 6.80805
75 120 6.72319
76 120 6.61857
77 120 6.48147
78 120 6.30543
79 120 6.06064
80 120 5.74041
81 120 5.38511
82 120 5.01342
83 120 4.60996
84 120 4.16928
85 120 3.71039
86 120 3.24127
87 120 2.73802
88 120 2.18149
89 120 1.52288
90 120 0.670809
91 120 -0.455693
92 120 -1.84122
93 120 -3.33447
94 120 -4.81093
95 120 -15
96 120 -15
97 120 -15
98 120 -15
99 120 -15
100 120 -15
101 120 -15
102 120 -15
103 120 -15
104 120 -15
105 120 -15
106 120 -15
107 120 -15
108 120 -15
109 120 -15
110 120 -15
111 120 -15
112 120 -15
113 120 -15
114 120 -15
115 120 -15
116 120 -15
117 120 -15
118 120 -15
119 120 -15
0 121 -15
1 121 -15
2 121 -15
3 121 -15
4 121 -15
5 121 -15
6 121 -15
7 121 -15
8 121 -15
9 121 -15
10 121 -15
11 121 -15
12 121 -15
13 121 -15
14 121 -15
15 121 -15
16 121 -15
17 121 -15
18 121 -15
19 121 -15
20 121 -15
21 121 -15
22 121 -15
23 121 -15
24 121 -15
25 121 -15
26 121 -15
27 121 -15
28 121 -15
29 121 -15
30 121 -15
31 121 -15
32 121 -15
33 121 -15
34 121 -3.67565
35 121 -0.720679
36 121 1.21035
37 121 3.11779
38 121 4.91168
39 121 6.3679
40 121 7.38993
41 121 8.12711
42 121 8.72187
43 121 9.21823
44 121 9.63434
45 121 10.0042
46 121 10.327
47 121 10.5526
48 121 10.6288
49 121 10.5486
50 121 10.3726
51 121 10.1656
52 121 9.94109
53 121 9.6791
54 121 9.38721
55 121 9.13217
56 121 8.93846
57 121 8.73751
58 121 8.48665
59 121 8.22073
60 121 7.9764
61 121 7.75642
62 121 7.55275
63 121 7.37225
64 121 7.23267
65 121 7.12477
66 121 7.03424
67 121 6.95519
68 121 6.89884
69 121 6.90205
70 121 6.95894
71 121 7.0032
72 121 6.97479
73 121 6.88664
74 121 6.79655
75 121 6.72825
76 121 6.6518
77 121 6.53193
78 121 6.35589
79 121 6.11155
80 121 5.8122
81 121 5.50555
82 121 5.1981
83 121 4.84439
84 121 4.41594
85 121 3.94372
86 121 3.46762
87 121 2.96955
88 121 2.41568
89 121 1.76237
90 121 0.927213
91 121 -0.18884
92 121 -1.59876
93 121 -3.14343
94 121 -4.64844
95 121 -15
96 121 -15
97 121 -15
98 121 -15
99 121 -15
100 121 -15
101 121 -15
102 121 -15
103 121 -15
104 121 -15
105 121 -15
106 121 -15
107 121 -15
108 121 -15
109 121 -15
110 121 -15
111 121 -15
112 121 -15
113 121 -15
114 121 -15
115 121 -15
116 121 -15
117 121 -15
118 121 -15
119 121 -15
0 122 -15
1 122 -15
2 122 -15
3 122 -15
4 122 -15
5 122 -15
6 122 -15
7 122 -15
8 122 -15
9 122 -15
10 122 -15
11 122 -15
12 122 -15
13 122 -15
14 122 -15
15 122 -15
16 122 -15
17 122 -15
18 122 -15
19 122 -15
20 122 -15
21 122 -15
22 122 -15
23 122 -15
24 122 -15
25 122 -15
26 122 -15
27 122 -15
28 122 -15
29 122 -15
30 122 -15
31 122 -15
32 122 -15
33 122 -15
34 122 -3.19155
35 122 -0.609713
36 122 1.753
37 122 3.96079
38 122 5.87899
39 122 7.29504
40 122 8.22621
41 122 8.87721
42 122 9.40173
43 122 9.84684
44 122 10.2287
45 122 10.5612
46 122 10.8287
47 122 11.0018
48 122 11.0473
49 122 10.9553
50 122 10.7751
51 122 10.567
52 122 10.337
53 122 10.0533
54 122 9.73019
55 122 9.4468
56 122 9.22065
57 122 8.98034
58 122 8.70294
59 122 8.42766
60 122 8.18014
61 122 7.94606
62 122 7.70778
63 122 7.49471
64 122 7.34121
65 122 7.23468
66 122 7.14594
67 122 7.0583
68 122 6.98746
69 122 6.96618
70 122 6.99097
71 122 7.01114
72 122 6.97263
73 122 6.88735
74 122 6.81601
75 122 6.78023
76 122 6.73637
77 122 6.63623
78 122 6.4685
79 122 6.24499
80 122 5.98717
81 122 5.72856
82 122 5.46439
83 122 5.13546
84 122 4.7118
85 122 4.23291
86 122 3.74923
87 122 3.24779
88 122 2.68293
89 122 2.01529
90 122 1.17643
91 122 0.0593721
92 122 -1.37014
93 122 -2.97148
94 122 -4.51436
95 122 -15
96 122 -15
97 122 -15
98 122 -15
99 122 -15
100 122 -15
101 122 -15
102 122 -15
103 122 -15
104 122 -15
105 122 -15
106 122 -15
107 122 -15
108 122 -15
109 122 -15
110 122 -15
111 122 -15
112 122 -15
113 122 -15
114 122 -15
115 122 -15
116 122 -15
117 122 -15
118 122 -15
119 122 -15
0 123 -15
1 123 -15
2 123 -15
3 123 -15
4 123 -15
5 123 -15
6 123 -15
7 123 -15
8 123 -15
9 123 -15
10 123 -15
11 123 -15
12 123 -15
13 123 -15
14 123 -15
15 123 -15
16 123 -15
17 123 -15
18 123 -15
19 123 -15
20 123 -15
21 123 -15
22 123 -15
23 123 -15
24 123 -15
25 123 -15
26 123 -15
27 123 -15
28 123 -15
29 123 -15
30 123 -15
31 123 -15
32 123 -15
33 123 -15
34 123 -2.79032
35 123 -0.031511
36 123 2.6773
37 123 5.00502
38 123 6.7838
39 123 8.02991
40 123 8.88641
41 123 9.51559
42 123 10.0133
43 123 10.4185
44 123 10.7609
45 123 11.0575
46 123 11.2936
47 123 11.4436
48 123 11.4813
49 123 11.3938
50 123 11.2193
51 123 11.0074
52 123 10.755
53 123 10.4421
54 123 10.0963
55 123 9.78312
56 123 9.50133
57 123 9.19813
58 123 8.88876
59 123 8.60917
60 123 8.36037
61 123 8.1086
62 123 7.84179
63 123 7.61826
64 123 7.47463
65 123 7.38657
66 123 7.31082
67 123 7.22677
68 123 7.14935
69 123 7.09287
70 123 7.05632
71 123 7.02597
72 123 6.97817
73 123 6.91792
74 123 6.88172
75 123 6.87336
76 123 6.8482
77 123 6.76792
78 123 6.62702
79 123 6.44393
80 123 6.23094
81 123 6.0013
82 123 5.741
83 123 5.3976
84 123 4.9654
85 123 4.4918
86 123 4.01364
87 123 3.51112
88 123 2.94134
89 123 2.26709
90 123 1.41128
91 123 0.258541
92 123 -1.21936
93 123 -2.87987
94 123 -4.45999
95 123 -15
96 123 -15
97 123 -15
98 123 -15
99 123 -15
100 123 -15
101 123 -15
102 123 -15
103 123 -15
104 123 -15
105 123 -15
106 123 -15
107 123 -15
108 123 -15
109 123 -15
110 123 -15
111 123 -15
112 123 -15
113 123 -15
114 123 -15
115 123 -15
116 123 -15
117 123 -15
118 123 -15
119 123 -15
0 124 -15
1 124 -15
2 124 -15
3 124 -15
4 124 -15
5 124 -15
6 124 -15
7 124 -15
8 124 -15
9 124 -15
10 124 -15
11 124 -15
12 124 -15
13 124 -15
14 124 -15
15 124 -15
16 124 -15
17 124 -15
18 124 -15
19 124 -15
20 124 -15
21 124 -15
22 124 -15
23 124 -15
24 124 -15
25 124 -15
26 124 -15
27 124 -15
28 124 -15
29 124 -15
30 124 -15
31 124 -15
32 124 -15
33 124 -3.99895
34 124 -1.80878
35 124 1.07883
36 124 3.80809
37 124 5.97891
38 124 7.52461
39 124 8.59789
40 124 9.3782
41 124 9.98201
42 124 10.4543
43 124 10.8249
44 124 11.1289
45 124 11.3961
46 124 11.6273
47 124 11.7911
48 124 11.8527
49 124 11.8005
50 124 11.6644
51 124 11.4622
52 124 11.1783
53 124 10.8315
54 124 10.4767
55 124 10.148
56 124 9.81783
57 124 9.45792
58 124 9.11123
59 124 8.80597
60 124 8.53267
61 124 8.25921
62 124 7.98226
63 124 7.76261
64 124 7.62392
65 124 7.54111
66 124 7.47432
67 124 7.40349
68 124 7.33353
69 124 7.25835
70 124 7.17279
71 124 7.09161
72 124 7.02766
73 124 6.98889
74 124 6.98205
75 124 6.98573
76 124 6.9669
77 124 6.9105
78 124 6.8142
79 124 6.67966
80 124 6.49808
81 124 6.27026
82 124 5.9804
83 124 5.59858
84 124 5.15118
85 124 4.68763
86 124 4.22562
87 124 3.73809
88 124 3.19028
89 124 2.53716
90 124 1.67974
91 124 0.495625
92 124 -1.04001
93 124 -2.79415
94 124 -4.52447
95 124 -15
96 124 -15
97 124 -15
98 124 -15
99 124 -15
100 124 -15
101 124 -15
102 124 -15
103 124 -15
104 124 -15
105 124 -15
106 124 -15
107 124 -15
108 124 -15
109 124 -15
110 124 -15
111 124 -15
112 124 -15
113 124 -15
114 124 -15
115 124 -15
116 124 -15
117 124 -15
118 124 -15
119 124 -15
0 125 -15
1 125 -15
2 125 -15
3 125 -15
4 125 -15
5 125 -15
6 125 -15
7 125 -15
8 125 -15
9 125 -15
10 125 -15
11 125 -15
12 125 -15
13 125 -15
14 125 -15
15 125 -15
16 125 -15
17 125 -15
18 125 -15
19 125 -15
20 125 -15
21 125 -15
22 125 -15
23 125 -15
24 125 -15
25 125 -15
26 125 -15
27 125 -15
28 125 -15
29 125 -15
30 125 -15
31 125 -15
32 125 -4.29903
33 125 -3.01966
34 125 -0.33308
35 125 2.43257
36 125 4.86542
37 125 6.73954
38 125 8.07351
39 125 9.01159
40 125 9.70717
41 125 10.2552
42 125 10.6903
43 125 11.0404
44 125 11.3342
45 125 11.5998
46 125 11.8416
47 125 12.0252
48 125 12.1184
49 125 12.1172
50 125 12.035
51 125 11.8505
52 125 11.5497
53 125 11.1935
54 125 10.8495
55 125 10.5207
56 125 10.1699
57 125 9.78737
58 125 9.41053
59 125 9.05637
60 125 8.73256
61 125 8.43368
62 125 8.15403
63 125 7.93024
64 125 7.774
65 125 7.66907
66 125 7.59039
67 125 7.52723
68 125 7.47849
69 125 7.4172
70 125 7.32251
71 125 7.21926
72 125 7.14465
73 125 7.11838
74 125 7.13096
75 125 7.14007
76 125 7.12225
77 125 7.08341
78 125 7.02976
79 125 6.9429
80 125 6.78584
81 125 6.55074
82 125 6.22987
83 125 5.81932
84 125 5.36366
85 125 4.90295
86 125 4.45128
87 125 3.9892
88 125 3.4808
89 125 2.8625
90 125 2.01865
91 125 0.826452
92 125 -0.754534
93 125 -2.63215
94 125 -4.56736
95 125 -15
96 125 -15
97 125 -15
98 125 -15
99 125 -15
100 125 -15
101 125 -15
102 125 -15
103 125 -15
104 125 -15
105 125 -15
106 125 -15
107 125 -15
108 125 -15
109 125 -15
110 125 -15
111 125 -15
112 125 -15
113 125 -15
114 125 -15
115 125 -15
116 125 -15
117 125 -15
118 125 -15
119 125 -15
0 126 -15
1 126 -15
2 126 -15
3 126 -15
4 126 -15
5 126 -15
6 126 -15
7 126 -15
8 126 -15
9 126 -15
10 126 -15
11 126 -15
12 126 -15
13 126 -15
14 126 -15
15 126 -15
16 126 -15
17 126 -15
18 126 -15
19 126 -15
20 126 -15
21 126 -15
22 126 -15
23 126 -15
24 126 -15
25 126 -15
26 126 -15
27 126 -15
28 126 -15
29 126 -15
30 126 -15
31 126 -4.222
32 126 -3.50611
33 126 -1.54219
34 126 1.10899
35 126 3.671
36 126 5.75124
37 126 7.31416
38 126 8.45811
39 126 9.28571
40 126 9.89672
41 126 10.3717
42 126 10.7606
43 126 11.0958
44 126 11.4008
45 126 11.6943
46 126 11.9627
47 126 12.1605
48 126 12.2659
49 126 12.2898
50 126 12.239
51 126 12.0805
52 126 11.8152
53 126 11.5095
54 126 11.2001
55 126 10.8742
56 126 10.5195
57 126 10.1432
58 126 9.75346
59 126 9.34916
60 126 8.96149
61 126 8.6219
62 126 8.32987
63 126 8.09918
64 126 7.92789
65 126 7.79882
66 126 7.70069
67 126 7.64064
68 126 7.61853
69 126 7.58701
70 126 7.50919
71 126 7.41245
72 126 7.3431
73 126 7.32791
74 126 7.35358
75 126 7.37038
76 126 7.35198
77 126 7.31355
78 126 7.27899
79 126 7.22753
80 126 7.10153
81 126 6.87887
82 126 6.56124
83 126 6.15928
84 126 5.71456
85 126 5.25255
86 126 4.79205
87 126 4.33099
88 126 3.83391
89 126 3.22993
90 126 2.40295
91 126 1.23158
92 126 -0.351854
93 126 -2.31149
94 126 -4.40608
95 126 -15
96 126 -15
97 126 -15
98 126 -15
99 126 -15
100 126 -15
101 126 -15
102 126 -15
103 126 -15
104 126 -15
105 126 -15
106 126 -15
107 126 -15
108 126 -15
109 126 -15
110 126 -15
111 126 -15
112 126 -15
113 126 -15
114 126 -15
115 126 -15
116 126 -15
117 126 -15
118 126 -15
119 126 -15
0 127 -15
1 127 -15
2 127 -15
3 127 -15
4 127 -15
5 127 -15
6 127 -15
7 127 -15
8 127 -15
9 127 -15
10 127 -15
11 127 -15
12 127 -15
13 127 -15
14 127 -15
15 127 -15
16 127 -15
17 127 -15
18 127 -15
19 127 -15
20 127 -15
21 127 -15
22 127 -15
23 127 -15
24 127 -15
25 127 -15
26 127 -15
27 127 -15
28 127 -4.08761
29 127 -3.88082
30 127 -3.84032
31 127 -2.87729
32 127 -2.01992
33 127 -0.111693
34 127 2.34915
35 127 4.67342
36 127 6.46093
37 127 7.76324
38 127 8.7365
